117.137 -32.315 226.042
128.133 -59.6375 222.79
112.529 -26.0375 236.029
122.594 -34.445 240.691
131.003 -56.4912 237.827
130.526 -70.8737 232.425
129.783 -45.0562 245.961
133.791 -56.9425 251.944
127.332 -35.7663 256.938
104.829 -20.085 245.675
56.415 -110.814 250.521
44.5338 -105.96 252.75
35.3525 -99.4362 254.261
28.05 -92.8788 259.842
37.5412 -104.271 263.323
23.1275 -89.0512 271.215
29.54 -98.5363 268.777
19.7563 -87.1925 287.45
18.2513 -77.4587 277.13
36.48 -105.464 275.034
46.1525 -112.256 283.247
34.5037 -106.05 289.626
25.4787 -97.6025 296.861
18.775 -86.6825 305.596
34.58 -107.083 305.991
89.9337 -114.299 228.423
81.68 -115.32 237.95
70.2838 -114.25 245.325
93.89 -115.995 242.628
66.2188 -115.365 260.766
60.775 -116.831 277.704
76.8588 -119.613 273.04
91.1463 -120.424 271.671
85.5688 -122.525 287.786
57.13 -118.315 294.112
67.8925 -122.653 305.494
55.6888 -119.567 309.46
80.7313 -124.126 303.68
76.4025 -124.822 317.964
92.8562 -123.694 301.825
105.039 -114.675 248.654
97.4488 -118.077 258.124
102.841 -119.004 273.242
25.4037 -64.2975 250.709
20.0725 -66.7925 267.837
24.5275 -53.7775 261.531
25.7675 -44.0838 272.676
32.8963 -40.9375 258.845
44.4275 -29.395 260.527
15.2125 -65.175 284.868
12.3975 -60.3 298.746
15.2525 -53.7262 290.415
20.8075 -45.2288 284.894
28.2563 -36.0513 282.706
17.9463 -43.98 296.149
20.915 -87.99 324.666
14.4738 -75.0325 316.544
30.8088 -101.325 332.926
25.3475 -91.965 344.18
45.6325 -115.034 315.534
37.44 -109.03 323.141
42.6913 -111.633 341.026
13.3175 -62.1062 326.589
11.6975 -63.3737 310.914
12.4938 -52.245 309.211
21.1113 -83.99 355.55
18.03 -75.8288 365.129
16.1975 -69.3988 351.23
15.9113 -56.0325 354.539
15.7512 -57.4813 340.96
31.0088 -97.4088 362.512
15.5413 -47.7925 331.005
18.9563 -74.8275 378.18
15.8713 -62.9975 368.349
16.8587 -47.8137 364.415
57.7288 -120.736 324.344
70.4 -123.909 329.714
62.8575 -121.561 338.714
55.655 -118.192 347.821
49.27 -113.691 358.021
69.1162 -121.59 352.609
82.8213 -124.758 330.47
94.3662 -123.438 328.505
88.7775 -123.039 341.948
103.471 -121.094 299.574
98.8825 -123.051 314.104
104.765 -119.851 324.647
43.3113 -108.104 368.605
36.8363 -101.071 379.409
23.265 -85 387.416
18.3862 -73.5288 390.986
30.71 -94.3275 390.247
25.5525 -87.475 399.926
41.4912 -101.435 395.72
56.2487 -114.337 373.483
82.25 -122.031 354.215
75.5775 -119.954 365.385
82.095 -116.305 377.255
69.2375 -116.695 376.443
62.2887 -112.054 388.261
94.2588 -120.198 352.894
104.872 -115.991 349.474
99.1188 -115.886 363.521
104.636 -109.414 372.557
94.0238 -113.849 376.174
89.075 -110.083 389.149
122.167 -98.1813 246.798
113.369 -108.436 245.036
129.604 -84.6625 250.804
128.299 -89.8813 261.412
130.594 -79.0588 241.518
133.68 -70.3275 253.786
113.48 -111.746 258.908
119.776 -107.016 272.492
112.216 -114.76 273.285
127.05 -95.1313 274.536
124.681 -101.029 289.7
133.21 -79.8188 277.892
135.414 -59.9575 265.004
108.364 -117.97 286.304
112.344 -116.11 300.414
127.131 -96.9775 309.674
119.979 -108.066 305.039
113.406 -114.5 317.28
136.259 -63.5263 279.293
136.573 -68.405 294.582
133.143 -84.9538 316.83
127.62 -94.0475 330.68
136.811 -72.3688 311.349
136.36 -73.9463 330.355
138.475 -57.5725 311.912
135.766 -49.29 277.545
110.491 -114.625 333.954
113.916 -109.073 346.703
127.605 -88.5963 350.736
121.149 -99.8087 348.4
113.788 -104.243 363.62
136.506 -64.6087 346.453
133.247 -76.5125 349.33
137.144 -43.5612 316.818
138.321 -48.9175 329.795
135.228 -40.16 346.09
137.2 -52.5825 345.314
134.744 -56.0438 361.329
127.848 -80.3412 367.457
110.706 -101.026 379.821
115.452 -91.4887 389.096
106.653 -97.805 395.341
122.459 -82.0863 384.994
117.774 -81.0875 401.401
127.948 -70.9113 381.284
68.9938 -16.6737 259.3
83.2912 -14.3962 255.517
56.55 -19.7275 267.074
68.6012 -12.465 277.311
45.9963 -23.515 276.22
89.7375 -10.0512 272.482
97.0013 -14.5487 257.314
109.135 -17.305 262.246
68.1175 -9.70375 295.722
80.595 -8.13875 286.439
93.1188 -7.7075 290.353
29.53 -30.8288 293.349
36.8475 -27.3162 284.601
45.6125 -19.7237 291.579
16.66 -42.8113 306.991
22.8038 -35.73 301.559
15.725 -43.6012 318.5
30.6038 -27.63 305.102
64.225 -8.54125 313.776
53.8888 -13.8038 302.466
41.1687 -19.745 306.131
59.42 -7.49125 331.075
74.8438 -3.71125 324.155
32.4063 -25.4575 318.294
22.2475 -35.3138 327.456
32.3625 -25.075 333.8
31.1213 -23.58 349.434
44.0875 -14.27 339.565
56.8013 -6.17875 347.036
84.64 -1.565 332.334
88.5775 -3.075 319.278
97.2275 -6.5475 305.55
105.488 -10.0712 291.233
100.011 -4.86125 319.535
30.6925 -20.0688 363.199
22.2138 -33.0375 360.934
17.8463 -40.4662 374.423
29.5075 -18.385 375.286
41.2463 -10.455 368.518
15.3525 -42.675 386.455
20.7775 -29.855 380.796
26.1975 -19.1712 386.688
55.8125 -4.805 361.086
71.3725 -1.6975 352.707
86.7962 -0.80125 355.731
85.6513 -1.6 343.573
96.2537 -2.8725 333.01
53.8525 -2.86375 374.224
78.3187 4.85875 379.041
90.0713 4.4075 381.959
88.0625 1.35625 369.174
65.1563 3.74625 381.298
72.945 8.68125 391.182
100.96 -3.09875 359.865
52.0562 0.8775 386.741
89.265 8.065 395.679
98.365 2.905 389.188
69.8775 12.8663 404.773
79.7063 11.625 401.814
86.4825 11.8788 409.397
125.084 -28.0125 268.955
131.577 -37.6588 273.335
133.721 -38.4225 290.372
111.721 -14.3187 277.364
118.136 -20.38 269.051
122.06 -21.3763 280.983
128.302 -26.9363 302.455
121.639 -19.485 296.635
119.284 -16.33 313.989
108.169 -7.94 325.081
116.121 -13.23 332.704
133.666 -35.7875 308.485
132.539 -31.0725 327.332
124.603 -20.1187 340.141
130.906 -28.7762 345.19
113.631 -10.54 350.805
115.489 -14.8075 289.271
129.872 -31.0687 360.675
124.05 -23.885 375.824
129.121 -35.9725 374.973
111.391 -7.70375 367.526
107.658 -4.0025 383.676
116.799 -12.9725 378.693
118.471 -18.7437 392.048
131.751 -48.02 374.861
131.326 -59.575 377.024
127.386 -42.0763 388.554
103.405 -0.0125001 398.975
12.0738 -57.06 409.629
12.9063 -52.3475 395.755
15.0238 -64.3262 400.156
10.8725 -56.9775 424.413
9.455 -48.1875 415.821
19.8263 -76.8288 403.935
24.3975 -82.2513 414.325
31.7237 -86.9963 423.902
21.5788 -75.4962 430.664
17.2825 -69.3237 447.686
14.0675 -64.6588 434.379
8.66625 -55.0787 438.671
12.94 -40.925 396.512
9.07875 -38.4475 418.44
10.675 -39.9738 407.132
14.685 -31.0313 401.046
43.3937 -97.4513 412.956
53.7887 -105.671 400.678
41.6338 -90.9075 431.022
67.7962 -106.279 403.287
67.46 -94.4012 431.878
60.7425 -90.6262 446.219
52.125 -92.555 437.172
39.8712 -86.325 448.65
83.3312 -104.386 403.32
75.3862 -98.795 417.569
83.5338 -91.1012 430.934
96.4125 -101.533 400.885
104.03 -91.3362 410.142
66.115 -87.2962 457.143
53.605 -87.595 459.689
42.3063 -84.9112 463.651
31.1 -79.3762 464.12
48.5 -84.7462 473.236
85.8525 -82.2375 453.042
86.9575 -78.2325 464.165
77.3325 -83.845 460.192
90.165 -83.3412 442.769
95.275 -76.7662 452.848
68.405 -83.875 470.085
97.3312 -83.42 432.465
19.4912 -71.015 463.824
10.98 -62.2737 461.531
23.56 -73.0537 481.142
95.8763 -72.7425 463.314
92.4612 -70.7375 475.313
102.459 -68.7712 457.579
4.47 -54.055 467.568
6.70375 -54.8275 453.364
4.53 -47.2962 444.688
17.635 -69.4762 498.605
13.54 -68.94 516.424
6.6275 -62.0475 502.337
-2.5625 -55.475 511.523
-1.27125 -52.955 494.856
29.7987 -76.5963 498.119
-0.74 -49.4975 479.989
-1.115 -44.51 466.73
-8.24875 -42.3475 491.595
19.4775 -73.9775 532.397
8.425 -67.865 532.731
-1.54875 -59.6162 528.354
-9.68875 -49.7637 523.032
0.7125 -64.3175 544.578
57.7938 -83.975 478.885
48.2975 -82.8475 487.477
68.4025 -81.0925 484.759
50.9138 -82.3212 501.479
41.2837 -80.9525 499.089
35.9137 -79.1762 513.643
78.0725 -75.3075 494.175
67.5487 -79.3662 499.332
59.2125 -81.4613 504.94
55.0963 -81.4463 513.601
66.2712 -78.78 512.206
89.3437 -68.7863 490.339
87.1263 -67.1662 506.654
99.09 -60.8512 487.677
95.2075 -57.9875 518.742
84.2537 -67.33 520.99
105.457 -52.96 484.98
104.169 -49.6025 500.594
107.457 -36.7763 512.171
103.001 -47.845 515.909
101.705 -48.5675 529.27
43.2163 -80.2612 526.792
31.1962 -78.11 529.166
27.0037 -77.9538 544.399
62.3662 -79.3425 521.282
54.3613 -80.2075 525.24
51.6725 -80.26 537.131
72.4125 -74.8237 522.798
80.78 -68.965 533.213
112.004 -80.2513 414.369
104.741 -81.8375 423.26
106.917 -72.4025 436.331
118.216 -69.9962 412.737
126.868 -61.1975 392.535
124.95 -50.3875 399.614
122.06 -60.2513 407.325
117.673 -57.63 421.276
122.36 -38.3475 402.918
116.307 -43.855 427.415
114.455 -53.0088 434.817
118.396 -26.03 405.269
117.592 -34.6187 417.334
113.475 -29.7288 431.321
111.732 -60.2188 441.532
107.482 -65.03 449.505
107.045 -60.16 461.31
112.557 -49.8138 448.143
110.257 -52.3463 460.598
107.423 -55.055 471.871
111.57 -43.8375 457.889
108.69 -45.7762 480.685
110.672 -32.2587 457.938
110.21 -39.2225 471.083
109.281 -32.5575 487.375
7.47125 -33.6788 429.112
11.815 -27.6025 418.688
16.89 -22.5825 408.644
21.725 -20.3237 398.07
17.2188 -15.4588 419.801
0.4175 -40.7175 453.383
3.7475 -37.9962 440.482
4.81375 -27.2363 439.176
-4.055 -34.2625 464.231
1.46375 -20.6588 449.923
7.915 -15.82 440.197
-4.10375 -23.715 462.613
-1.36 -12.9537 461.635
-8.70375 -27.2725 475.833
11.4812 -4.1625 445.948
15.4762 -9.03625 432.853
4.775 -2.69875 459.723
13.6512 7.08375 456.836
-3.09625 -4.01875 475.391
31.33 -9.9875 395.138
36.4875 -1.04625 404.739
42.0525 -1.3625 394.155
52.2912 6.185 398.179
33.865 2.8925 417.75
43.465 8.17125 413.386
51.9725 11.2337 409.429
60.49 12.4375 406.246
51.325 15.8713 420.691
24.14 -2.78625 424.804
32.8037 9.75875 431.746
66.2962 17.4575 416.813
52.0137 21.475 432
60.0538 20.6687 425.871
70.3812 21.2325 428.836
33.3175 18.7212 445.505
42.9412 20.6438 437.881
53.3075 28.0225 443.358
16.28 19.1413 470.098
24.3275 17.8962 456.104
35.6225 28.8425 458.35
85.9637 14.67 422.006
92.3275 9.92875 415.495
80.9987 18.5637 431.894
89.4775 14.2675 431.759
74.13 24.145 441.186
95.275 8.62875 424.245
99.4725 3.81625 412.486
95.7813 7.93625 435.366
55.4225 34.5763 454.088
64.6325 30.5637 448.085
76.19 28.7113 452.44
-12.2262 -31.455 489.046
-12.9675 -19.645 489.264
-14.5475 -35.1113 503.36
-15.9775 -14.2937 505.563
-10.5712 -7.00375 492.009
-15.5212 -38.8337 518.964
-17.9188 -26.4825 514.049
-19.1437 -15.3875 523.421
-3.1925 6.22375 491.122
8.51875 20.0713 486.566
20.67 31.2825 482.336
27.0713 41.4325 491.163
32.08 38.9613 479.258
39.0975 37.8662 469.434
46.9813 36.7287 461.184
43.1913 45.0762 479.475
0.45 19.5775 504.091
-15.5387 -43.7113 534.549
-23.0163 -21.0925 541.221
-21.4725 -5.84375 534.977
-15.6575 -48.6825 549.343
-20.8938 -36.2438 545.831
-25.6425 -27.4 557.568
-5.25625 22.2738 519.767
5.9375 33.8962 514.338
-19.3325 7.1625 534.115
-17.8512 18.4613 541.547
-13.3112 16.92 529.16
-6.635 30.3487 533.59
-24.5075 2.3525 548.15
84.72 32.9412 477.89
76.9037 38.7125 472.411
78.3825 40.965 482.015
91.75 25.0525 485.325
90.0462 23.345 471.935
72.3112 46.7075 487.196
79.8737 42.92 492.635
80.5488 45.8187 504.909
86.3213 38.9588 502.42
92.5088 34.46 515.334
92.0562 29.7225 499.975
97.885 17.3675 498.17
25.82 46.415 503.752
36.2837 49.3337 496.79
16.9387 44.9363 513.672
27.0325 53.2425 516.266
9.02125 44.7788 526.725
-20.8075 21.08 553.548
-14.7175 29.2662 550.04
-6.9725 37.56 546.35
1.0575 42.9525 538.905
-10.5475 39.1138 558.179
58.0513 40.7075 464.216
46.0612 50.34 490.265
53.6512 48.78 482.6
60.6425 45.7 474.462
68.1062 41.2225 467.824
63.4388 49.1775 485.039
46.4638 54.3625 502.013
76.2537 34.5025 462.624
85.0887 25.355 460.053
93.5225 14.1987 461.56
67.5175 51.025 495.717
65.3087 54.6512 507.505
73.6925 50.9975 506.686
80.4238 49.7775 518.395
45.9738 58.365 514.266
55.8137 57.09 509.921
64.4075 58.725 521.064
28.9813 59.3162 527.734
36.72 58.8288 519.781
45.45 62.53 526.104
10.8375 52.445 539.85
15.0425 59.5025 550.037
22.1387 59.7088 538.299
32.9525 64.3488 537.811
80.1525 54.7038 533.024
86.9262 47.9762 531.929
63.1512 63.32 534.806
72.3587 59.72 533.997
79.0837 60.1988 547.789
93.1237 39.3812 530.96
98.535 29.8675 530.013
92.9487 45.3525 547.234
43.2775 66.1387 537.214
53.2962 65.555 535.781
60.98 67.9112 548.034
113.006 -14.3863 407.599
106.48 -4.18375 410.005
108.046 -9.65125 421.996
103.006 -3.39375 435.275
109.122 -16.2025 433.926
110.097 -24.1175 445.455
97.6012 5.06375 448.263
101.124 -0.26875 462.594
107.175 -17.1075 460.563
104.696 -7.8025 477.925
103.474 1.70375 497.56
107.681 -16.1338 493.965
108.82 -25.445 505.969
103.224 10.33 515.061
103.291 18.6925 529.682
107.558 6.08375 531.829
104.043 23.73 545.359
109.154 -23.6625 522.686
110.718 -15.5975 534.238
110.033 -28.09 535.872
106.816 -40.1963 538.513
100.334 -51.4575 540.543
110.303 -32.2362 547.557
110.681 -4.5225 538.334
112.47 -13.3525 548.196
110.322 5.2725 548.729
0.2825 -67.0575 559.648
-8.435 -58.7525 553.854
-16.715 -52.2475 564.336
8.2775 -73.23 568.474
-2.6175 -68.0137 574.105
19.9825 -78.2075 569.046
14.285 -77.45 581.199
36.085 -81.2775 551.99
26.4688 -79.3537 558.532
31.8475 -81.7825 571.445
-3.79375 -69.3075 588.143
-11.7725 -62.6413 583.81
-20.3125 -56.7537 596.645
-18.49 -54.5837 580.071
-24.0162 -44.8412 576.713
-21.3625 -59.6338 614.036
-11.7137 -67.775 614.751
-21.1338 -63.2013 630.2
-20.7025 -66.4475 645.768
-30.0887 -58.0112 645.966
-28.67 -50.4588 612.402
-37.2412 -52.9362 660.692
-37.8887 -47.7712 646.712
-36.2475 -43.6738 628.964
-33.7062 -39.9562 609.636
-42.7887 -36.3162 643.634
6.46125 -75.28 591.617
-2.42625 -71.815 601.739
17.7238 -80.1625 594.673
-0.4875 -74.69 616.182
11.0475 -79.9825 618.768
0.94625 -76.9238 632.105
2.4 -78.3587 649.676
-10.4937 -72.8875 647.751
-21.8637 -67.4637 661.521
27.8988 -83.49 600.992
19.5425 -82.0225 608.194
21.7625 -83.5613 621.911
57.985 -80.3575 546.04
46.9025 -81.8038 548.014
44.44 -82.985 558.742
79.1225 -70.8788 544.059
78.6687 -72.53 555.304
68.8675 -77.15 548.101
60.8187 -80.7963 556.128
90.7625 -62 542.28
52.8225 -82.7012 564.676
43.2775 -83.17 570.065
40.29 -83.3625 582.851
86.44 -67.2962 564.927
75.0662 -74.7487 567.26
63.135 -80.0125 567.351
67.3588 -78.0912 579.315
96.585 -57.6825 561.536
93.6763 -60.4912 573.853
98.8313 -54.6763 550.706
104.747 -46.3563 559.579
70.505 -77.1762 594.131
59.1375 -81.7387 593.28
80.3775 -71.4187 598.677
69.2987 -77.8337 611.969
91.1625 -62.595 588.279
88.8338 -64.4488 605.458
100.884 -52.4613 582.011
47.9325 -84.115 595.25
37.3 -84.2988 597.665
53.14 -83.9963 609.965
35.4313 -85.3763 611.895
31.3337 -85.4875 623.907
24.9087 -84.6213 635.995
39.8862 -85.86 625.19
65.3662 -78.9725 630.232
58.025 -82.2862 622.842
85.8012 -66.6075 623.419
81.7238 -69.2787 640.987
74.14 -74.37 634.943
96.3088 -56.3225 613.138
62.4525 -79.7463 648.524
16.85 -82.77 650.948
5.9025 -79.88 666.771
29.9487 -84.9613 648.971
-26.475 -64.9687 676.733
-32.8288 -59.3975 669.74
-42.435 -49.0375 673.765
-5.70125 -76.2087 682.071
10.4112 -81.7075 683.31
-13.7625 -72.9375 698.033
-21.125 -68.4588 686.595
25.4287 -84.2713 689.954
12.675 -83.0338 700.674
-1.535 -79.2438 707.513
-15.8713 -73.4337 713.116
11.8 -84.2975 715.799
-34.6925 -58.4575 690.03
48.2513 -84.8688 626.445
40.9225 -85.2763 640.192
39.02 -84.3513 657.449
87.4287 -64.6588 648.775
75.5537 -72.7537 658.578
97.7312 -54.2463 639.846
92.7188 -60.1813 657.53
104.893 -44.6138 605.337
102.114 -48 622.125
106.14 -41.7725 633.367
68.7162 -76.0737 675.681
63.1175 -78.87 664.944
88.5013 -64.8462 674.669
85.8525 -68.065 690.749
77.4212 -72.3363 683.319
65.6462 -78.3125 692.674
97.9625 -55.895 667.252
50.975 -82.59 663.38
38.3187 -83.8963 677.1
40.1988 -84.2562 697.366
93.4963 -63.1687 698.619
85.7025 -69.83 706.094
67.2738 -79.4625 709.879
54.5563 -82.5462 703.57
78.56 -75.3537 716.079
71.3025 -80.48 726.35
89.1475 -69.3812 721.981
109.907 -34.2625 558.721
109.017 -37.3862 568.83
112.427 -22.9988 555.849
107.714 -41.6225 578.704
106.409 -43.88 590.659
111.956 -29.9563 578.818
110.535 -34.0788 598.901
105.484 -45.7387 662.646
102.646 -51.7088 678.59
107.34 -46.3775 690.3
101.018 -55.4225 694.182
100.485 -57.9975 710.025
-30.2088 -19.045 570.943
-27.86 -32.81 573.451
-30.7712 -36.6412 590.775
-34.2738 -11.6575 585.43
-31.0713 -5.60875 571.669
-36.6612 -28.1262 605.997
-37.7225 -15.5238 602.141
-36.9475 -2.5475 598.919
-41.43 -19.2137 619.685
-28.12 3.0825 563.098
-24.9825 12.7062 558.015
-31.0275 7.21125 578.041
-22.5362 24.0175 564.889
-34.1925 9.65875 594.385
-29.6112 19.6625 586.807
-23.7463 28.1663 578.035
-17.0975 35.3162 568.976
-25.4638 32.5525 594.009
-46.045 -10.5462 630.65
-44.9788 -23.6463 636.99
-48.3638 -27.3562 652.824
-50.8638 -2.835 639.14
-46.045 2.585 625.465
-53.6488 -7.1525 650.014
-53.9388 3.29875 645.79
-53.33 -17.505 656.781
-52.5112 -28.1387 665.932
-39.1975 7.6425 610.221
-9.115 45.945 569.283
-10.19 50.6787 583.611
-0.8 55.1462 570.297
6.71375 63.0262 574.904
9.67375 60.4287 561.999
21.4637 66.4075 558.906
-19.0337 45.2238 598.65
-9.625 55.7675 597.301
-27.685 36.95 610.899
2.4325 63.8938 589.492
14.5962 69.05 579.953
-4.71625 62.6975 606.656
23.7225 74.1462 584.625
25.4087 71.2437 570.114
18.1937 76.725 602.434
32.5862 79.2225 592.888
3.045 71.1687 614.366
11.78 79.4338 622.409
-12.9225 61.8675 627.119
38.7738 68.7962 548.117
76.6575 65.7375 561.991
84.3313 59.92 562.384
57.2113 72.1038 561.267
67.9175 69.7225 561.927
74.2925 70.1012 575.864
87.7388 59.4238 577.26
91.3325 51.975 563.149
98.1338 40.455 563.213
33.1675 70.855 559.274
45.0225 72.595 560.302
51.9825 75.8425 574.335
46.32 79.6288 588.636
59.8375 77.6513 588.616
40.5288 83.9887 605.895
72.1262 73.235 589.234
81.4863 67.0487 586.482
68.2763 77.8463 603.415
89.895 58.535 591.171
63.0475 84.4613 620.131
76.865 77.4587 619.824
85.7438 75.7063 636.901
89.395 66.5737 619.751
93.9788 55.8525 605.102
99.1413 44.305 592.36
99.9488 52.5338 620.503
6.875 83.0938 641.385
20.83 87.2025 631.939
29.0387 93.7937 644.492
34.665 88.945 625.013
48.59 88.1288 621.431
-42.9125 15.3563 621.699
-52.1337 13.4575 644.374
-46.145 19.9725 633.986
-37.1088 27.6388 621.994
-46.8525 24.725 645.771
-32.0875 39.6113 628.731
-50.6138 -37.59 676.487
-45.2437 -47.2137 685.951
-39.2188 37.79 646.474
-28.0488 50.3075 639.746
-19.7925 62.225 647.715
-7.2625 75.9325 651.785
3.64 86.8887 657.483
-0.23 89.1138 672.158
11.7587 94.4125 666.344
18.47 99.9713 678.422
23.8113 97.7188 662.455
36.3937 98.7275 657.921
-48.1338 47.3262 682.496
-20.2813 68.2262 664.753
-27.9212 66.9975 681.105
-13.51 79.9388 677.773
-40.3387 57.2613 687.401
-32.34 70.9875 699.15
-2.8025 90.7563 687.026
-1.29625 94.55 702.449
10.6287 98.8525 692.175
24.8475 103.445 690.83
56.7575 91.1625 637.347
49.7163 97.2463 653.568
62.8025 94.255 653.609
43.9688 101.884 669.336
64.2838 97.9287 670.435
74.0188 91.2213 661.399
52.5788 102.542 677.728
60.62 101.486 686.449
39.0025 104.326 684.176
83.7825 87.9262 676.807
83.9575 82.8138 655.851
94.0025 73.605 654.387
81.1962 91.9688 698.306
92.4638 82.5363 696.21
67.1063 99.6213 700.008
74.3138 96.9762 716.543
51.27 104.226 701.271
112.951 -11.205 561.685
111.713 2.56375 563.894
112.762 -6.11375 574.236
108.724 14.615 558.483
113.718 -16.9838 582.384
113.299 -25.6625 591.013
113.505 -3.23125 588.818
104.525 26.3088 562.47
113.311 -21.905 604.191
114.23 -7.08625 604.22
113.491 -16.3888 617.325
112.269 8.99375 599.041
114.531 -12.0525 632.725
111.599 -27.695 631.042
108.756 -37.6888 646.865
107.094 26.5625 594.061
110.164 21.9737 610.989
107.736 36.4888 622.859
113.024 19.4888 628.383
115.727 3.81 637.945
116 -9.87875 649.33
115.37 18.6512 645.443
103.07 33.1087 578.619
105.411 48.9075 635.642
110.985 -34.3175 660.5
114.89 -21.67 660.667
113.396 -30.4138 673.03
112.384 -35.9738 686.621
112.092 -39.3475 701.216
116.024 -23.5987 683.929
117.368 -8.58 664.854
116.537 -31.17 711.644
112.41 -41.6525 717.416
106.867 -51.9975 723.801
99.1188 -61.21 725.856
113.372 -42.8013 734.193
118.173 -9.73125 679.683
118.501 -14.4237 693.501
120.584 -6.0825 705.578
119.125 -19.9375 707.266
120.231 -22.4688 721.313
118.6 3.71125 671.799
117.228 17.28 661.941
118.105 17.52 676.862
114.433 31.105 653.844
115.784 33.35 677.382
118.088 21.8912 691.171
117.596 29.1263 706.654
120.435 9.9975 707.136
122.133 -0.6725 720.809
104.926 56.7137 649.948
110.062 44.5175 649.723
113.47 40.2513 663.945
101.443 65.8412 657.314
107.136 57.9587 665.689
100.484 70.7625 673.34
112.08 47.265 673.671
109.934 54.6275 682.534
106.566 62.9663 690.555
112.587 48.5737 701.405
116.076 38.245 721.395
100.811 72.2225 694.314
-14.7737 -78.1025 727.486
-27.75 -68.4212 721.469
-37.0075 -65.055 731.81
-3.13625 -86.5137 735.59
-15.4412 -83.3913 740.901
-21.72 -87.2925 752.011
-27.3312 -78.665 744.237
-34.8725 -71.0488 740.402
-43.7425 -65.2663 741.141
-37.4725 -74.9637 747.835
9.42 -87.1837 729.064
9.21875 -91.9 742.112
22.9538 -87.8962 725.37
-20.4312 -97.3712 763.845
-33.7262 -88.59 760.587
23.625 -94.5762 745.685
13.9613 -97.78 752.98
22.0562 -104.429 762.755
7.22125 -103.761 762.442
-6.5125 -105.496 769.023
-20.7963 -108.332 778.633
5.88625 -112.261 775.037
-46.1037 -70.5763 749.219
-42.6937 -78.92 755.873
44.3563 -85.4613 715.207
50.91 -87.5263 730.606
36.8488 -88.3037 726.344
64.135 -85.6325 736.107
57.2175 -90.315 744.654
76.005 -82.5537 743.596
31.3638 -91.4375 736.825
37.3288 -95.3687 748.13
49.88 -94.8913 751.835
42.9487 -99.815 759.215
61.2762 -94.2087 758.106
94.46 -67.9075 739.92
49.9637 -103.567 770.409
36.7525 -105.146 766.85
29.1162 -110.489 773.019
70.9987 -93.2525 767.693
61.5437 -99.3863 770.822
58.4225 -104.938 781.034
79.3787 -86.065 762.374
79.3913 -91.5238 780.847
87.2525 -77.4512 752.884
-27.2188 -126.286 811.695
-21.5238 -118.662 795.251
-11.1888 -125.077 807.567
5.3475 -123.757 801.37
1.09375 -129.211 820.606
16.2912 -130.07 832.33
-0.520001 -132.761 841.084
0.0162498 -133.614 860.994
10.4775 -119.106 787.162
19.02 -115.179 778.64
20.505 -122.918 797.922
32.7637 -115.541 783.236
44.8375 -115.198 791.129
33.4525 -120 794.42
32.805 -123.429 808.099
66.7725 -104.509 793.311
55.7963 -110.022 790.398
55.2137 -113.969 800.859
85.725 -89.1287 797.469
76.445 -98.02 797.249
71.73 -104.365 807.25
95.315 -78.4738 796.814
90.88 -84.2113 815.999
98.1288 -69.285 759.954
100.576 -70.9287 779.881
104.246 -67.9225 796.32
107.412 -60.1 766.92
71.4137 -106.217 820.579
64.4437 -110.71 810.426
55.1587 -116.455 813.055
76.0462 -100.903 834.455
66.1437 -110.321 832.931
86.0837 -88.7575 835.12
79.4687 -94.4263 851.459
96.4837 -74.24 832.043
44.6763 -121.342 818.409
31.9362 -125.945 824.922
55.69 -117.103 827.753
29.1687 -128.371 843.22
57.595 -115.345 843.792
59.575 -112.114 860.721
48.6012 -119.782 855.89
70.29 -102.05 865.265
60.1325 -108.314 877.459
80.14 -90.0438 868.997
112.022 -56.8562 792.455
109.102 -59.3037 807.246
114.124 -51.9987 777.349
118.23 -45.2275 788.02
114.711 -47.16 761.892
114.37 -46.8387 812.825
106.353 -58.7713 823.746
122.585 -32.7725 785.586
119.706 -39.705 799.354
119.388 -33.4525 811.319
102.709 -60.1987 841.719
-46.0313 68.9325 721.037
-37.1713 74.7537 715.771
-26.2775 82.955 712.387
-41.835 78.3087 729.146
-23.3787 91.4087 726.141
-13.8637 91.415 713.071
-0.86 99.5837 718.519
-31.1275 92.6738 737.996
-22.2163 98.0363 738.805
-22.2525 103.419 749.886
-14.0075 102.368 741.27
-4.04 103.251 733.648
8.53625 105.551 728.285
-6.79 106.459 747.44
-39.8112 86.83 738.148
-38.94 94.3712 747.146
-38.6838 101.514 755.65
-30.605 105.566 758.006
-21.3125 108.281 760.083
74.4212 100.958 757.946
83.9713 94.7562 763.53
82.8275 95.65 748.761
64.195 105.272 749.425
64.2375 105.18 766.455
90.5787 88.615 739.97
80.52 95.4812 732.676
67.255 102.408 732.535
53.6263 107.466 739.424
100.08 74.825 715.849
86.3963 91.6113 777.056
92.5662 86.9775 766.251
65.595 103.173 783.481
68.8325 99.425 800.916
78.7025 95.5612 788.315
52.7425 108.43 776.195
90.4563 85.31 789.577
96.6438 82.7825 752.781
98.4725 79.17 735.584
100.073 77.54 767.969
58.2562 102.931 814.959
73.5238 94.4788 818.284
40.4788 111.099 767.914
39.455 110.875 784.063
23.3075 112.918 786.784
33.6675 111.309 798.41
24.4725 112.579 812.698
41.8775 108.743 812.11
47.5613 105.723 827.843
50.2287 102.635 853.711
61.2463 98.3613 848.738
50.3775 103.637 841.627
39.8825 105.415 859.05
51.0525 100.638 865.03
37.2412 108.116 838.611
23.2537 111.57 839.501
30.695 108.94 850.312
29.6125 107.891 862.915
99.6412 69.0062 815.182
95.725 76.3938 800.617
87.69 82.9225 818.004
79.3313 88.275 833.904
102.01 63.3812 832.752
108.026 55.6125 816.576
96.6212 69.4512 847.35
104.532 56.8763 847.42
86.06 81.0475 847.256
91.9338 73.5663 859.486
73.5488 91.095 847.105
100.215 74.08 784.109
123.699 -1.47625 737.206
122.652 -11.8888 729.066
121.856 -21.93 734.611
123.729 6.1225 749.156
125.001 -8.74875 752.631
115.034 45.6113 735.894
119.904 25.995 741.671
122.669 15.4037 762.471
119.556 -31.0325 740.929
116.385 -40.2825 749.549
123.66 -19.9188 748.123
120.909 -33 762.614
124.44 -19.4163 761.411
123.935 -24.4212 773.455
124.886 -19.405 785.935
105.789 68.5888 733.933
108.738 64.5387 751.982
111.24 58.545 737.876
114.13 50.5775 752.86
106.059 67.5088 770.617
110.944 57.9412 767.002
114.787 45.6413 773.347
124.88 -6.83125 791.74
123.291 -19.99 802.581
119.359 -23.2025 819.943
119.955 27.695 776.362
123.759 8.50375 782.616
123.02 6.13125 801.926
116.184 38.9588 791.255
120.369 18.8275 812.846
120.805 5.89125 820.208
119.446 -9.1225 827.334
115.991 -23.4263 835.744
118.046 4.60625 836.768
118.165 31.3662 806.402
117.219 30.3575 821.111
113.66 44.9188 806.408
112.164 -33.7913 846.417
108.514 -39.4013 859.935
107.321 -47.6538 849.323
113.956 -21.1488 849.902
100.124 -61.1812 858.151
108.512 -31.9788 869.755
105.032 -43.305 872.62
114.156 -10.3425 856.214
111.673 -21.2237 862.959
109.221 -22.0288 875.245
113.32 42.8375 821.732
113.942 36.015 834.4
110.269 43.4188 847.014
114.062 29.3875 846.456
115.697 15.37 847.926
115.511 1.78875 851.524
113.071 23.2487 860.616
106.655 49.4888 859.884
11.0138 -131.842 870.751
-3.0475 -132.186 880.458
-8.03625 -128.314 899.055
24.0125 -129.914 861.183
19.7175 -128.857 878.864
36.905 -125.819 855.196
5.7275 -124.061 906.675
-8.25125 -122.311 916.609
29.1637 -124.544 884.203
17.9587 -125.037 895.844
18.8825 -118.842 911.664
-2.7825 -114.659 932.349
39.67 -122.76 870.574
39.2775 -119.063 886.956
59.035 -104.04 893.509
49.5038 -112.344 889.39
39.6188 -113.877 901.951
87.3463 -79.08 875.22
77.8275 -87.85 886.575
75.1238 -84.0387 903.451
67.265 -94.6038 898.789
55.8813 -100.154 908.739
94.7588 -68.76 869.911
92.06 -68.9025 884.095
100.565 -56.1838 871.128
96.6 -56.83 890.622
90.5413 -64.9463 898.361
82.7625 -72.0887 907.659
72.9825 -78.58 918.691
89.3587 -58.6838 912.209
101.341 -48.9738 882.338
100.945 -43.42 893.664
43.7113 -106.329 913.974
31.3537 -112.819 914.21
23.3988 -110.753 925.554
51.625 -96.625 922.214
71.18 -73.2513 931.861
61.4237 -85.2325 928.336
80.0713 -60.6113 933.586
71.6012 -67.165 943.395
88.2887 -51.8925 925.204
86.6838 -47.9075 936.522
94.8913 -44.3812 915.962
-7.9925 -104.948 953.421
-19.2925 -102.213 962.496
-11.7725 -96.5438 972.275
15.0325 -108.375 935.895
4.50125 -106.514 944.922
9.31625 -99.8912 954.99
31.5775 -100.976 936.704
3.06625 -93.32 974.561
23.2762 -93.8288 958.413
11.9338 -94.72 965.146
16.0725 -89.8538 975.383
47.4225 -92.8012 934.435
41.9825 -90.3675 945.37
36.7687 -89.0625 955.176
33.0687 -87.455 964.263
51.575 -80.5512 954.014
38.9225 -82.7125 971.601
28.0175 -86.5738 973.29
23.6138 -85.465 983.404
64.8737 -70.1137 954.353
57.8012 -72.8412 964.035
49.4862 -76.9312 972.059
42.0912 -79.6875 980.356
59.6925 -69.55 975.508
75.1363 -59.0438 953.042
83.4575 -48.1412 947.729
80.7088 -48.8862 958.621
90.3863 -36.7975 942.491
45.4575 -76.4875 990.287
34.1237 -81.2863 988.455
23.85 -82.6825 996.326
77.9762 -52.9425 978.708
75.0287 -56.0737 991.628
67.7762 -62.8388 983.155
82.1825 -46.18 968.461
86.9475 -41.1637 977.709
56.8287 -70.4063 988.371
87.6963 -36.4075 960.463
73.5113 -55.6125 1004.92
93.6913 -29.4438 978.51
50.0212 -72.2275 1001.64
74.1175 -50.7475 1018.36
64.6688 -59.6875 1016.59
53.6175 -67.1287 1016.03
40.7125 -73.3962 1015.76
56.4913 -60.5562 1032.6
104.284 -29.6087 895.816
100.16 -37.755 905.686
99.58 -29.5212 916.779
69.455 92.5038 858.984
63.5113 94.325 868.425
75.8587 86.455 869.829
81.5638 80.1525 880.561
87.06 76.8475 870.538
96.3987 65.8288 871.292
55.22 97.1163 876.011
60.9075 92.9463 887.719
67.7987 87.8337 899.662
74.9475 84.0387 890.14
46.255 100.215 883.109
86.5412 73.9812 892.111
62 90.7388 910.217
74.975 82.235 911.215
47.1512 98.5512 909.692
57.4087 93.0175 922.485
34.8337 103.702 897.935
30.6937 105.22 908.73
32.39 105.868 875.716
35.4 103.906 887.532
21.4013 108.507 886.651
80.2537 76.3812 922.415
84.7137 73.44 912.426
91.6313 63.9538 914.982
89.8725 68.3975 903.851
94.9725 63.1 894.374
76.35 77.485 934.497
84.6138 68.965 932.124
89.5738 58.6425 938
91.15 61.3975 926.346
96.2538 53.4625 919.606
65.675 86.7188 935.215
71.595 80.5425 948.142
52.5688 95.7075 935.947
92.4263 -27.9487 951.434
94.0475 -22.985 961.631
96.0775 -23.0662 939.615
98.3238 -10.0763 964.927
96.1325 -20.4287 971.839
98.4575 -18.1325 981.507
76.0987 -42.5888 1030.85
65.5525 86.6288 962.135
75.4488 75.8813 960.915
79.315 70.425 971.325
83.82 63.17 958.731
90.5488 49.6725 959.869
89.5025 53.7063 948.909
94.9688 45.9288 939.142
38.445 104.074 938.56
47.0438 99.8838 949.39
12.0138 111.212 905.535
22.9 108.459 918.736
11.7675 113.723 927.539
26.9962 108.506 931.15
24.3813 111.759 943.124
54.0413 96.2775 961.458
57.7337 94.9613 974.841
39.9688 106.489 962.094
77.6262 74.1413 985.008
84.8275 61.7562 978.325
90.6937 50.8375 983.684
90.92 49.3263 971.612
95.3463 37.4825 964.494
95.6812 38.8937 989.162
90.86 51.7112 996.296
85.2437 64.1463 1004.26
91.2125 51.2588 1009.5
99.2875 26.7588 995.117
99.15 26.325 982.484
98.745 26.5012 1008.45
101.136 14.9987 1001.07
91.2413 49.2038 1023.01
95.4313 37.8737 1015.43
97.4713 25.2512 1022.15
69.2325 86.2962 994.158
78.0275 75.7025 999.367
45.9275 106.234 984.451
58.48 96.545 989.777
59.7238 97.635 1006.09
79.08 75.345 1014.13
33.21 113.914 975.231
50.6237 106.436 1019.78
62.6087 95.7925 1023.19
41.2188 113.493 1034.46
113.122 -2.25375 864.948
111.526 3.1975 875.91
110.49 -9.57625 876.823
107.6 -19.7038 886.645
111.552 15.8562 874.795
109.501 6.90125 889.011
110.412 28.7687 873.811
106.232 -15.9325 899.056
106.904 -3.14125 902.761
103.65 -15.1137 912.662
99.8825 -18.6375 926.104
106.951 10.2162 904.311
106.219 24.5087 904.04
107.625 33.2888 887.571
104.306 38.17 901.756
104.329 14.81 919.578
100.767 51.0812 897.65
100.496 44.965 912.629
98.7538 42.65 926.649
99.3325 33.3988 936.548
101.744 20.4112 933.677
102.221 6.3125 933.62
99.3687 24.1663 946.92
107.769 41.5125 872.859
103.175 53.9688 872.127
99.4263 58.22 883.605
100.28 -8.0325 936.441
100.145 1.62 947.085
99.7712 12.9212 954.26
99.5413 1.09125 959.106
98.3025 25.4775 958.9
100.535 2.32 970.501
100.774 14.2638 976.454
101.675 3.17375 981.865
98.5387 25.8888 970.502
101.256 -7.22875 986.851
102.113 3.625 993.471
101.13 3.83625 1006.46
23.325 107.478 728.177
39.7887 108.052 732.205
37.0387 105.754 714.473
12.1138 109.271 742.996
35.5787 104.987 698.883
-10.3937 109.692 760.096
0.8925 110.005 754.731
-19.3112 112.581 769.634
40.1487 110.379 750.681
12.3038 111.865 758.975
26.785 112.095 762.037
14.9487 113.132 773.677
-31.7188 119.77 793.867
-21.94 116.404 780.969
-13.5125 117.033 790.447
-4.32625 116.95 803.092
5.23125 114.643 787.265
6.06625 115.726 815.686
15.385 113.765 827.836
9.02875 114.275 843.181
7.09375 113.806 858.701
-28.1113 120.376 896.613
-1.17875 114.467 890.681
5.15625 113.115 881.469
-16.0012 119.149 911.174
-8.33625 116.377 900.721
11.05 112.046 873.554
19.415 110.279 867.352
-32.6925 128.367 934.375
-24.9387 123.331 922.279
-5.435 118.938 924.992
-36.4938 134.396 947.729
-18.485 129.717 946.344
-5.0675 129.269 956.41
-3.32375 124.506 945.797
10.4225 118.574 945.51
2.2075 119.257 936.446
-37.4938 140.992 961.6
-20.6938 140.544 969.469
-4.175 133.12 967.544
9.10375 125.305 963.141
-6.99 138.563 977.864
18.3213 117.634 954.035
24.4125 117.204 964.115
-20.24 147.92 1023.21
26.8787 -78.5025 1012.71
19.5963 -73.315 1046.95
7.885 -73.585 1059.78
30.38 -73.6488 1031.04
34.5987 -67.4863 1050.46
-18.4562 -76.0675 1067.99
-34.1387 -77.0587 1065.47
-40.8262 -74.975 1081.49
9.21875 -71.665 1077.75
-3.4875 -74.4025 1070.14
-9.47125 -73.8737 1083.91
60.39 -51.805 1048.5
48.7162 -59.6687 1050.75
40.8388 -59.3612 1068.39
69.8713 -43.57 1044.64
65.7363 -40.4775 1060.65
78.2612 -33.0262 1042.62
48.0912 -50.8538 1083.42
33.82 -60.3162 1085.89
18.625 -67.6087 1091.48
3.78 -71.6313 1092.88
28.955 -61.315 1103.3
59.035 -39.255 1084.87
54.49 -42.6012 1096.4
72.8375 -26.8112 1067.4
65.5337 -33.095 1076.1
67.8675 -25.595 1090.7
-38.205 -73.4775 1097.12
-27.1775 -73.1862 1107.81
-40.6275 -72.9163 1111.69
-46.56 -72.8037 1119.8
-9.8975 -72.4162 1101.51
-12.7975 -72.7637 1122.29
-49.1912 -74.0825 1129.81
-32.7463 -76.3938 1153.78
-44.5137 -77.7925 1163.98
-45.56 -75.7212 1144.76
-17.755 -75.3725 1145.47
-20.4012 -78.53 1169.49
-0.325 -73.96 1139.01
-45.15 -79.6337 1181.1
-35.4425 -80.49 1191.15
-23.3425 -81.2562 1191.46
-9.3925 -80.91 1187.55
41.4013 -53.585 1110.69
29.5538 -61.3663 1117.11
36.1287 -59.7837 1128.78
23.3162 -66.5875 1128.1
13.3488 -71.9962 1137.53
7.78625 -75.81 1156.75
23.3175 -69.5575 1143.01
52.385 -44.3 1107.84
51.1275 -47.0275 1119.5
61.3887 -33.4712 1106.93
58.5413 -42.2837 1131.69
48.2637 -51.9375 1131.63
69.2625 -22.1087 1104.52
69.195 -24.105 1116.93
68.4175 -30.1625 1130.13
67.1175 -37.63 1144.91
77.0675 -16.9263 1129.75
42.0675 -58.44 1141.3
85.24 -20.9712 1042.07
79.45 -23.0588 1055.52
90.885 -8.9925 1039.68
79.715 -12.6975 1068.69
74.6137 -12.4525 1099.13
92.2462 22.1838 1049.77
88.35 24.01 1064.19
89.3675 12.3888 1059.23
95.2625 23.4862 1035.87
92.805 33.2113 1041.77
85.05 0.88875 1065.81
90.3 1.52125 1050.35
95.0237 2.40875 1035.08
98.6762 3.50625 1020.51
97.235 13.6138 1029.11
86.4225 59.6375 1032.25
80.2738 72.7925 1029.02
80.9713 68.7825 1044.47
90.7425 46.0237 1036.47
74.5875 77.03 1059.64
80.8262 64.0888 1060.85
84.9538 50.9375 1062.62
87.1787 37.34 1064.56
89.37 42.4925 1050.25
80.3188 59.4175 1077.82
72.4462 84.7213 1026.22
65.0425 92.6663 1040.49
66.3875 88.9937 1058.42
67.65 84.6462 1075.27
56.155 99.9725 1056.17
84.9737 30.6838 1078.07
75.8438 68.1987 1093.38
80.2537 54.8862 1094.05
82.7487 40.1563 1092.35
83.395 25.3438 1090.7
81.5275 48.8037 1108.4
69.31 80.33 1090.71
70.465 77.5575 1106.43
59.6575 92.5487 1090.14
30.1025 120.088 1048.28
43.7525 110.396 1052.74
45.2825 107.558 1072.03
80.3913 -0.9875 1079.89
81.63 11.1287 1090.35
78.2525 -2.06125 1093.18
79.1875 0.4825 1106.72
82.6825 20.8337 1102.24
82.6037 14.085 1111.57
82.8412 5.29375 1120.46
84.4788 27.3162 1115.55
88.525 9.905 1136.19
83.8225 -3.5175 1131.89
84.38 40.6838 1120.65
87.6575 31.9525 1131.26
91.0425 22.8062 1141.99
94.5887 13.0313 1154.61
91.42 35.8175 1149.42
76.9175 -33.5925 1159.83
66.4987 -45.155 1162.22
44.1237 -60.3525 1156.56
33.1262 -65.5625 1149.18
55.69 -55.92 1169.03
42.9912 -65.1637 1175.12
68.2813 -50.5738 1181.95
85.0675 -12.4612 1146.03
85.9575 -22.1062 1161.54
85.6312 -31.88 1177.01
92.9762 -10.0175 1164.82
82.29 54.5337 1126.06
61.9475 89.075 1115.29
71.1225 77.8288 1123.08
72.3587 79.6587 1141.13
78.1675 67.77 1132.93
84.2375 58.4212 1145.38
52.1137 99.2262 1105.28
50.4375 101.27 1122.35
65.1213 90.0612 1149.7
73.4888 81.8637 1159.82
53.5837 100.192 1141.68
56.8762 99.5512 1161.62
38.8112 111.403 1133.66
46.815 104.847 1090.63
94.7113 39.755 1169.27
96.64 44.8512 1190.26
99.505 29.6175 1181.94
89.64 49.285 1157.67
99.9775 15.5163 1174.96
97.8162 2.515 1169.29
104.05 18.0788 1196.61
79.8413 75.1225 1172.58
85.6813 68.25 1185.7
85.665 62.6313 1165.44
71.76 86.8025 1178.54
5.6225 -78.6825 1179.39
3.1125 -82.0975 1203.69
17.325 -82.465 1219.57
1.75875 -86.3075 1228.36
-10.4225 -89.6675 1240.83
-17.88 -92.6787 1257.98
2.98125 -90.1937 1250.77
17.0675 -75.7113 1170.29
24.83 -71.5938 1159.12
29.0912 -72.215 1176.13
38.655 -70.9812 1193.95
50.45 -69.7087 1213.23
33.775 -76.9862 1214.47
30.6037 -82.2087 1237.5
67.085 -61.26 1215.38
61.8088 -68.8512 1233.57
74.1712 -52.2925 1201.53
82.785 -51.0088 1220.42
81.6275 -42.0675 1190.29
72.595 -67.4712 1252.69
57.855 -75.1637 1253.43
86.295 -57.6425 1253.19
82.635 -65.395 1271.07
91.1837 -48.1037 1238.24
98.1637 -46.2713 1254.73
95.7487 -38.8763 1224.74
-38.75 -94.3912 1272.26
-22.9988 -94.6337 1275.37
-29.24 -95.5 1288.88
-9.14125 -94.4837 1275.58
14.8825 -90.165 1263.72
2.78125 -92.9888 1270.34
42.97 -81.3512 1255.87
28.4263 -86.2975 1259.36
25.45 -89.825 1279.14
-34.5138 -95.365 1300.71
-35.9625 -94.3937 1314.28
-19.5363 -95.9875 1305.24
3.18375 -94.49 1287.97
54.7425 -80.4337 1273.43
35.0025 -89.715 1295.8
18.84 -92.9063 1295.19
7.8575 -95.0187 1305.65
50.6787 -85.2337 1292.7
45.0937 -89.4438 1310.28
54.8563 -88.8438 1322.44
40.4325 -92.4575 1327.18
12.4587 -95.3687 1324.76
-3.665 -95.9875 1314.17
26.5662 -94.705 1335.6
12.56 -95.585 1343.92
39.64 -93.3512 1344.32
65.7475 -79.2825 1290.67
79.7225 -71.5975 1290.39
75.1175 -77.73 1307.44
92.5988 -61.9625 1289.14
68.25 -83.6725 1321.3
61.4487 -87.8662 1334.82
80.7725 -76.9538 1324.72
107.059 -35.57 1258.52
104.395 -44.8513 1270.32
111.136 -40.6162 1283.56
103.585 -50.9712 1286.75
103.69 -55.7162 1305.58
92.3762 -31.5425 1194.39
100.012 -19.8763 1197.46
98.55 -30.0788 1210.97
99.9112 -8.645 1184.05
105.231 -7.625 1203.1
104.219 -24.6512 1225.93
84.2638 75.5087 1205.8
91.345 60.64 1198.64
96.7663 51.625 1212.02
60.81 98.3275 1180.63
67.15 94.7062 1196.91
47.715 108.581 1176.48
74.9875 89.5013 1211.17
81.5762 84.2738 1224.96
64.5925 101.772 1214.46
77.7875 94.2262 1242.35
86.85 78.3563 1238.87
91.7787 70.8475 1253.7
95.2538 59.9425 1233.76
101.974 40.4113 1226.77
69.1425 106.707 1243.91
73.6438 104.3 1257.16
56.805 111.131 1219.67
64.2562 107.683 1230.37
60.8738 114.911 1241.11
78.73 99.5588 1270.92
82.515 95.0087 1285.44
87.0875 83.2738 1271.01
70.2175 112.746 1271.55
95.565 64.3788 1269.38
76.9725 106.496 1296.11
84.5838 93.0888 1300.55
68.84 117.159 1287.19
69.8975 116.294 1304.03
61.69 123.499 1273.92
86.6787 92.2362 1316.35
90.9 80.3363 1305.87
98.9963 57.9425 1284.72
103.813 45.315 1270.82
96.6275 65.385 1300.33
103.714 48.9088 1298.22
96.4125 69.7263 1315.36
61.2188 122.809 1314.05
72.76 112.071 1322.22
82.8463 100.604 1328.57
90.4863 88.5638 1331.1
77.0487 106.904 1339.06
107.533 5.23625 1211.3
108.044 -9.0125 1221.95
108.935 -15.1337 1238.2
106.366 21.2375 1219.17
107.573 26.105 1241.7
109.32 29.0387 1262
113.227 11.0725 1255.58
113.431 -6.19875 1251.59
110.697 -22.2425 1252.57
117.213 -0.99375 1267.26
111.063 29.6513 1279.84
113.29 -26.7475 1265.93
117.919 -20.69 1274.9
115.22 -30.7275 1278.46
117.533 -33.0963 1291.81
119.765 -10.2613 1275.99
121.847 -17.0837 1285.12
125.746 -13.4738 1297.38
122.719 -23.44 1295.47
122.256 -30.7838 1305.15
121.211 0.1 1282.51
122.851 7.85625 1295.11
125.886 -3.19375 1297.54
110.959 33.3825 1296.11
117.349 19.8212 1294.04
123.39 14.57 1310.4
129.838 -8.9375 1310.38
115.334 -47.5725 1320.21
104.836 -58.905 1326.16
122.818 -36.5775 1317.06
125.616 -38.9675 1331.09
128.858 -25.6875 1317.93
109.184 40.5275 1311.08
107.401 48.6838 1325.57
114.705 35.2688 1324.93
122.388 22.96 1325
129.337 12.45 1326.15
120.629 32.32 1338.54
101.49 62.19 1326.9
106.717 57.1775 1339.28
96.21 75.575 1329.6
-32.3162 149.986 1037.3
-17.3062 145.125 1040.2
-10.5425 140.686 1054.66
-0.87625 137.917 1040.11
15.3962 129.205 1042.93
-45.5175 152.508 1031.11
-45.98 150.84 1049.12
-12.875 140.618 1071.51
2.0475 134.061 1064.74
-49.885 150.125 1067.89
-24.3013 144.613 1084.63
-6.02625 136.631 1090.86
-40.4538 148.755 1081.59
-35.4338 146.825 1102.05
17.2125 126.736 1058.61
17.2225 125.637 1074.69
14.9313 125.859 1092.13
32.3625 115.936 1085.42
7.27375 129.451 1109.43
-34.865 145.486 1124.8
-33.4637 145.01 1147.19
-20.2775 142.021 1133.32
-26.8 143.643 1167.39
-7.735 137.951 1146.68
-1.77125 134.611 1127.64
19.6825 123.342 1128.32
1.0375 134.611 1161.48
-13.1613 140.144 1164.19
6.51 132.783 1177.05
15.9987 127.162 1163.38
-16.455 141.161 1181.12
-13.9875 141.195 1198.63
-3.53125 137.489 1188.78
10.04 132.371 1192.72
27.16 119.925 1148.83
32.235 118.019 1169.04
36.265 117.53 1188.29
-22.7175 143.454 1209.6
-6.85875 141.59 1216.73
-31.9063 144.196 1220.91
1.6975 142.893 1234.34
8.6375 138.485 1221.04
22.2888 133.536 1222.11
14.4538 133.079 1207.7
23.7087 126.065 1196.8
-8.55125 146.232 1246.81
8.85875 145.6 1250.69
32.7887 132.864 1234.45
35.1325 126.106 1219.95
33.6613 138.577 1248.33
44.2175 131.067 1245.89
15.6988 148.409 1265.17
23.9038 144.423 1254.07
35.7725 143.178 1261.45
-27.025 145.371 1239.39
-21.3775 147.066 1257.64
37.4225 120.064 1204.97
47.0825 117.859 1217.01
53.4787 117.942 1230.92
53.7275 122.872 1244.71
54.1937 127.859 1259.16
-17.0088 147.951 1275.94
-15.4788 147.217 1293.35
-3.0875 149.475 1284.03
-25.9913 142.58 1306.49
-13.1012 144.422 1309.83
-34.2663 135.526 1323.47
6.19125 148.664 1295.42
10.4663 149.872 1279.38
23.72 148.961 1277.04
-0.77375 144.896 1311.66
12.6138 144.451 1309.69
-11.015 138.766 1326.62
18.3975 138.029 1324.2
26.5625 142.878 1305.93
-24.445 131.73 1338.5
-10.5787 130.934 1343.79
-5.38125 123.664 1357.9
6.25875 131.894 1341.51
23.2475 130.476 1339.68
52.9 132.831 1274.13
34.8363 146.192 1273.83
43.9388 140.759 1272.49
48.3162 136.83 1287.8
31.34 146.244 1288.19
39.0187 140.219 1299.1
49.2012 132.14 1307.02
50.5237 126.085 1327.47
-24.895 -94.3675 1326.8
-37.865 -93.125 1329.6
-43.7488 -91.4525 1345.76
-13.8863 -95.6738 1322.02
-13.565 -94.67 1338.2
8.22625 -94.9238 1361.27
-2.41125 -95.0462 1349.6
17.23 -93.8438 1374.29
1 -93.4325 1376.51
43.54 -91.8925 1360.37
50.5412 -88.7438 1375.28
34.0163 -92.3525 1373.98
25.0363 -90.8737 1390.07
53.5287 -90.3 1348.14
-33.9662 -90.465 1358.42
-42.9813 -84.395 1389.37
-17.5288 -92.9875 1354.07
-24.235 -90.6738 1369.3
-14.895 -91.5063 1378.69
-30.36 -88.2087 1382.55
-8.15625 -90.9812 1389.29
-32.8075 -85.7263 1394.97
-19.6187 -87.3087 1399.44
-32.2887 -83.0375 1406.98
-31.3925 -79.12 1419.77
-3.5825 -88.1662 1402.51
67.4313 -85.0725 1347.81
80.9975 -77.735 1343.45
75.505 -80.0538 1360.36
93.0912 -69.18 1334.74
66.9488 -82.8237 1374.89
59.2775 -83.8275 1389.33
70.525 -77.1263 1400.79
52.57 -82.2587 1404.79
33.6725 -85.6075 1406.63
14.6825 -87.505 1405.77
44.975 -79.0475 1420.93
83.0387 -75.0463 1374.62
86.1725 -71.595 1391.5
83.325 -69.3863 1409.61
97.625 -67.0125 1377.69
0.586249 -82.9662 1418.39
-16.1538 -77.88 1427.91
-31.855 -73.705 1433.35
-36.0375 -67.6125 1445.44
2.37875 -75.8363 1435.53
-28.0063 -61.4925 1458.32
3.98 -67.535 1452.26
8.375 -58.66 1466.58
-9.89125 -61.0975 1461.63
-19.425 -53.1812 1471.66
21.0287 -72.4263 1443.59
25.2675 -54.955 1470.24
13.48 -49.5575 1477.05
-9.12 -44.1612 1482.52
-23.9963 -44.3263 1481.83
4.79875 -43.3112 1483.41
-0.0800002 -34.7425 1489.3
17.38 -39.9938 1484.44
57.985 -71.94 1432.9
39.0537 -74.19 1436.88
76.92 -67.13 1428.03
67.7012 -64.4863 1443.67
95.0775 -62.1838 1419.64
37.4888 -67.3237 1451.6
54.1087 -62.2163 1454.88
39.0013 -59.4362 1463.03
41.475 -51.3375 1471.48
71.5112 -57.1813 1454.37
87.3337 -52.0262 1455.46
72.615 -50.0525 1464.5
71.9075 -42.6225 1471.79
57.62 -47.885 1471.27
45.8962 -43.4137 1476.86
106.056 -60.7 1346.35
118.488 -53.3425 1354.84
107.42 -61.375 1364.31
129.201 -44.3713 1350.62
128.572 -48.7075 1363.03
133.891 -29.3137 1336.11
131.018 -37.79 1342.14
139.075 -34.7337 1349.39
111.789 -59.63 1380.09
125.769 -52.7637 1377.44
119.708 -56.4125 1392.82
137.924 -46.0737 1370.99
112.659 -57.8575 1410.88
106.025 -56.8687 1429.9
128.919 -53.6725 1406.02
116.484 -53.08 1438.7
101.494 -53.5863 1445.86
144.199 -50.6625 1406.02
137.365 -52.0612 1421.72
131.124 -51.7 1436
124.801 -49.1512 1448.98
145.622 -50.075 1435.72
101.8 -47.7262 1458.46
81.555 102.53 1353.72
84.07 99.6225 1367.42
91.6225 94.375 1360.91
68.8737 111.18 1349.13
100.211 86.96 1368.68
97.1613 86.765 1355.21
95.9237 82.3688 1342.44
102.229 76.4737 1352.3
58.695 89.8775 1404.11
72.9887 92.0888 1398.53
56.7462 99.0587 1389.39
57.5662 107.019 1374.32
40.2437 106.28 1380.04
16.5338 93.375 1401.88
10.3162 83.5788 1414.67
28.2412 85.5737 1410.45
21.0225 103.122 1388.02
1.33125 99.415 1395.52
35.9963 76.465 1420.51
46.0537 84.6462 1411.23
61.8475 79.6275 1417.9
23.7237 112.688 1372.77
72.6125 104.145 1371.57
84.7175 96.6475 1380.2
61.3262 111.429 1360.88
54.17 118.655 1346.23
85.71 91.885 1393.43
96.0363 89.0075 1388.24
105.979 81.5763 1395.14
103.651 84.38 1382
107.573 78.7462 1374.05
87.8175 84.4825 1408.33
116.796 -44.925 1460.04
106.241 -39.7475 1468.25
110.176 -29.1963 1475.69
95.7475 -32.7175 1474.4
81.5825 -34.5225 1474.66
67.8712 -34.8575 1476.87
86.7162 -24.0762 1478.83
36.1975 19.6562 1467.15
36.9263 30.0487 1459.79
27.7037 27.005 1463.49
35.7712 10.0738 1473.65
43.9762 12.855 1471.45
18.6412 35.2412 1460.7
18.73 24.6487 1469.71
10.3925 23.0963 1478.05
18.4787 14.2712 1478.1
18.2238 3.5625 1484.93
27.4625 6.875 1478.52
36.075 1.0275 1479.46
46.9175 34.2013 1458.14
38.6712 41.2325 1451.64
54.7562 27.37 1465.36
57.4162 39.8163 1457.07
49.8838 5.615 1476.26
52.5975 15.64 1471.46
61.5725 20.3162 1472.3
-40.0888 86.9087 1422.62
-29.2713 90.4663 1413.1
-16.9438 86.17 1416.83
-15.9163 95.0888 1403.68
-14.075 104.511 1389.41
-11.4788 114.304 1373.68
-39.635 81.7887 1435.54
-17.42 77.8825 1430.36
-5.22125 80.6 1421.48
-37.8538 78.33 1448.95
-27.635 76.7875 1440.15
-16.795 71.0863 1443.65
5.17125 73.5387 1427.65
2.9975 49.395 1459.14
-0.8525 57.1837 1451.72
-3.56875 53.12 1463.42
-10.1763 57.2887 1468.21
-5.6275 49.6125 1475.53
4.2525 40.9063 1468.44
10.16 43.3588 1458.74
-0.8975 41.11 1478.11
4.35375 32.3438 1478.3
-5.455 43.8638 1488.08
-7.84 64.4675 1446.64
-14.3875 64.4463 1456.52
1.64875 64.115 1440.18
-17.835 63.9712 1470.04
-36.2075 77.6762 1462.93
-47.1625 86.73 1482.8
-36.885 79.815 1477.23
-26.8687 72.055 1472.24
-39.0313 83.5275 1490.03
13.7762 65.44 1434.6
-20.2437 65.9475 1485.16
27.5912 67.1975 1430.42
41.1475 67.885 1429.21
21.6413 56.99 1440.84
89.475 74.5925 1424.34
100.643 76.5913 1418.27
111.354 71.4938 1422.75
107.964 77.6963 1409.35
114.356 75.4563 1401.69
62.6612 69.1825 1430.43
75.2838 71.9587 1428.13
87.5238 62.8438 1440.2
45.0925 60.4487 1436.28
52.5387 66.3337 1431.86
59.6012 60.7225 1438.63
18.9262 46.03 1451.15
30.1637 48.8037 1446.1
41.125 51.6738 1443.59
51.5487 54.9938 1442.15
60.27 51.445 1447.49
68.88 45.7125 1455.85
82.3825 49.8988 1454.96
97.1788 52.655 1453.48
76.7637 37.3738 1466.25
